# .PCD v0.7 - Point Cloud Data file format
VERSION 0.7
FIELDS x y z intensity
SIZE 4 4 4 4
TYPE F F F F
COUNT 1 1 1 1
WIDTH 1114
HEIGHT 1
VIEWPOINT 0 0 0 1 0 0 0
POINTS 1114
DATA ascii
13.873791 1.6088035 2.7643723 13.111504
14.235326 1.6131687 2.6145983 12.117882
8.4496317 1.9722759 2.6623588 13.053759
8.7385521 1.9804865 2.6190968 14.552278
8.8443155 1.9660213 2.6228251 15.034134
9.0623102 1.9478037 2.647007 15.035958
9.2813997 1.9360619 2.6872525 15.020205
9.4482746 1.9406576 2.7127461 15.020329
9.6229143 1.9259382 2.7434108 14.785727
9.9417419 1.9079843 2.6843431 13.541578
10.095936 1.9101212 2.6115596 14.957724
10.282022 1.8388846 2.6281402 15.108862
10.547525 1.8191763 2.6763432 15.114072
10.67235 1.8105385 2.7095766 15.114279
10.864891 1.8087666 2.7492607 15.110684
11.13795 1.8523464 2.6784525 14.928011
11.259724 1.8419294 2.6150134 15.051199
11.441669 1.8292909 2.6417913 15.045313
11.698986 1.8138306 2.6372075 15.040314
11.864666 1.8090966 2.6449218 14.991251
12.024752 1.806684 2.7337441 15.013796
12.21043 1.8260465 2.6414266 14.541229
12.620591 1.8118116 2.7857461 15.02984
12.904453 1.8049084 2.7554908 15.030296
6.0345488 2.0936353 2.6085045 14.603872
6.2347279 2.0901723 2.6172643 14.723206
6.5304222 2.1148689 2.618577 12.055125
6.700233 2.1107502 2.603281 12.055125
6.9427481 2.089951 2.620815 12.050114
7.1462345 2.104651 2.6083579 13.051025
7.3554497 2.0661378 2.62324 13.799196
7.4798765 2.0506186 2.6181116 15.019703
7.6505947 2.042649 2.6456616 15.031898
7.8061881 2.0247018 2.6835809 15.05148
19.226236 -6.6075544 2.8185573 15.107289
19.218502 -6.5820646 2.8126447 15.107289
19.248583 -6.2814922 2.806633 15.123192
19.257759 -6.1662612 2.8034308 15.123235
19.440586 -2.6362021 2.8007874 15.034852
19.441641 -2.5270896 2.8020511 15.034396
19.445623 -2.3082571 2.8021984 15.035194
19.45529 -2.1112275 2.8177319 15.037699
19.463903 -1.963832 2.8242221 15.046811
19.475037 -1.7063202 2.8875251 15.047153
19.483765 -1.599905 2.8960474 15.049886
19.590996 -1.2127906 2.8829918 13.367821
19.612698 -1.2126172 2.8704898 13.10205
19.594692 -1.1274822 2.8716531 12.60958
19.616558 -1.0365616 2.9038532 11.126163
17.714724 -0.87019676 2.8101866 15.045786
19.547237 -0.92187178 2.9115686 14.575109
19.625137 -0.85332823 2.9080005 11.04993
16.391359 -0.68091023 2.8004413 12.116173
19.629471 -0.73831946 2.9061761 11.124146
19.568035 -0.4393518 2.8158662 15.049825
19.644394 -0.54029763 2.9128685 11.118053
19.654266 -0.28364372 2.9337511 11.116913
19.664093 -0.11503336 2.9394417 11.116629
19.672529 0.10199152 2.9641328 11.116287
19.596191 0.37945718 2.8906713 14.045725
19.633266 0.30408636 2.8273225 15.049415
19.588995 0.4187943 2.9006667 13.798161
19.594162 0.71372157 2.8579607 13.0418
19.64056 0.69133019 2.8399494 15.05205
19.724552 0.91672921 2.9434204 12.096185
19.736895 1.1123631 2.9925418 11.115328
19.806416 1.1128713 2.967526 10.998632
18.163624 1.3660764 2.8157158 11.117653
18.369123 1.3654737 2.8742933 11.119134
18.498745 1.3427725 2.8525894 11.116814
18.654869 1.3413608 2.910264 11.11749
18.893951 1.3126814 2.8897791 11.411873
19.091938 1.3070698 2.9361043 11.120448
19.324633 1.2887821 2.9594493 11.120758
19.48608 1.2718254 2.9642859 11.143848
19.768726 1.2290967 2.9567878 11.080605
14.108628 1.5841242 2.8346305 13.115347
14.276503 1.5764441 2.8632522 13.116316
14.53552 1.5635253 2.8990235 13.120502
14.689012 1.5458598 2.9098885 13.11549
15.25306 1.5536622 2.8156321 12.118223
15.569191 1.5190922 2.8321943 12.118109
15.75315 1.5103658 2.8726263 12.116373
15.960869 1.4987621 2.9149554 12.117712
16.106865 1.4756576 2.9032726 12.115418
16.267014 1.4626731 2.9046273 12.114137
16.406069 1.4416294 2.9081402 12.122323
16.609713 1.4382868 2.9339716 12.115718
17.363762 1.5556064 2.8185263 15.053003
17.438023 1.5464126 2.8237863 14.925413
17.724377 1.5369787 2.8614683 14.29721
17.891371 1.523721 2.8887434 15.048975
18.09203 1.5101237 2.9026244 14.046242
18.281364 1.4888487 2.9132524 15.049886
18.535709 1.5164456 2.8685927 13.047608
18.763699 1.4805058 2.9376419 14.047608
19.617828 1.4250019 2.83707 15.058933
10.918507 1.7959182 2.8022165 15.11549
12.148378 1.7316984 2.8401029 14.116629
12.445891 1.6907878 2.8122911 14.237073
12.71372 1.6738096 2.8302569 14.114009
12.920443 1.6579235 2.842895 14.117085
13.051281 1.6505449 2.8578286 14.120274
13.494759 1.6364474 2.8314912 13.610477
13.690756 1.6343999 2.8493938 13.117653
13.897076 1.6102574 2.8386917 13.114122
14.007841 1.6033441 2.8382094 13.113895
11.983684 1.8053794 2.8028328 15.037813
12.488227 1.8110311 2.8212309 15.029726
12.643987 1.825209 2.8132317 15.030068
19.575798 -1.0869923 3.0005078 14.602392
19.576818 -0.7639631 3.0046415 15.101822
19.727837 1.1401441 3.0126991 11.115358
19.38328 1.2898996 3.0057273 11.119362
19.486341 1.2381604 3.0176291 12.294918
19.673023 1.2474673 3.022553 11.123847
-0.65383387 -10.403125 -0.40500313 5.0536666
-0.066250429 -10.422078 -0.40967566 5.052465
0.33219415 -10.433783 -0.4051317 5.0515079
0.4432863 -10.429304 -0.47820511 6.0728884
1.9852343 -10.469017 -0.49962351 6.0690203
2.1969767 -10.443401 -0.40424198 5.9966097
2.5321531 -10.456929 -0.40529644 5.9962063
2.9046035 -10.459888 -0.40741748 5.9959292
3.3813331 -10.432169 -0.4136439 5.995913
3.6476665 -10.532879 -0.41762942 5.0756369
4.159399 -10.406088 -0.41068089 6.0399432
4.6037645 -10.438736 -0.40326625 5.5169983
5.0496044 -10.448629 -0.42453283 6.0412922
5.4090953 -10.47398 -0.41356954 6.0407639
6.7406125 -10.509195 -0.4375492 6.0287018
7.1182947 -10.530737 -0.41782942 6.0276303
7.3734226 -10.551402 -0.40868974 6.0265169
-0.87135476 -10.128485 -0.40352249 4.2503653
-0.47148639 -10.377854 -0.41401762 6.0937843
-0.28059685 -10.3778 -0.41712818 6.1014462
0.35133106 -10.346832 -0.40548629 5.7231522
0.50380421 -10.049404 -0.4125188 3.6679571
1.569705 -10.180244 -0.54626799 5.5119333
1.8601116 -10.105545 -0.43535954 1.2248132
2.1067252 -10.047919 -0.40774804 4.9964409
2.6057944 -10.205738 -0.4102115 5.418056
2.9109519 -10.282808 -0.40713245 5.9832549
3.218183 -10.327743 -0.40303072 5.9934063
3.8360634 -10.120861 -0.40752953 5.015398
4.2069454 -10.04474 -0.40634617 5.0090675
4.5490346 -10.122953 -0.40726471 4.9950533
4.8325114 -10.137993 -0.40435934 4.9919167
5.3573618 -10.176174 -0.40256578 4.9982648
-0.85273838 -9.7844162 -0.42829373 3.2170844
-0.59351391 -9.6354752 -0.4033967 5.1020999
-0.23676679 -9.6445341 -0.40334719 5.10005
0.17375624 -9.6806736 -0.40605104 4.0979252
0.52895391 -9.7987814 -0.40982547 2.9748232
1.537111 -9.6163616 -0.43101567 6.1009507
1.9136741 -9.658783 -0.40386975 3.5013223
2.0624883 -9.6556072 -0.40535802 4.9965801
2.7433691 -9.6509228 -0.40239644 4.9933705
3.1067371 -9.6381435 -0.40557927 4.9904499
3.2990451 -9.6909256 -0.4075563 4.9927688
3.6924381 -9.8276463 -0.4031806 5.0023217
4.1304092 -9.7151871 -0.4037863 4.9922419
4.6090212 -9.6822233 -0.40500686 4.9916587
4.9066963 -9.6963501 -0.40912428 4.9909558
5.2648139 -9.8069935 -0.40339166 4.9920678
5.756793 -9.7274542 -0.40268159 4.9910021
-0.8442291 -9.3506641 -0.41165513 3.289526
-0.53872275 -9.2505722 -0.4125101 5.1019983
-0.21914315 -9.2552376 -0.41172063 5.097549
0.020368263 -9.2831898 -0.41388446 4.0978642
0.49816459 -9.4319077 -0.41372856 1.080691
0.9266088 -9.2174177 -0.41214353 2.1868341
1.5769269 -9.3352451 -0.41853815 5.5503416
1.8723776 -9.2827635 -0.40157413 4.9332938
2.3054752 -9.4075508 -0.40102953 4.9324665
2.7155704 -9.3678761 -0.40320557 4.9322014
3.0910816 -9.2822123 -0.40478301 4.9789081
3.295723 -9.3393908 -0.40301448 4.9936275
3.9067802 -9.2773333 -0.40354365 4.9959688
4.1170287 -9.2489147 -0.40730083 4.9921904
4.5701985 -9.3760471 -0.40265417 4.9916019
4.842773 -9.4194889 -0.40267915 4.9909563
5.3360806 -9.4193363 -0.40546203 4.9900379
5.849628 -9.5503597 -0.40330619 5.0147924
6.1200719 -9.2787066 -0.4006359 4.9898062
-0.83122504 -9.0264568 -0.41267318 3.3277512
-0.58042532 -8.8363161 -0.41588318 5.1017632
-0.27649081 -8.851965 -0.41375107 5.0975652
0.029203959 -9.078228 -0.4123328 3.8515162
0.71960056 -8.869976 -0.40850234 3.7736249
1.0745373 -8.8733692 -0.40369427 4.9361019
1.4614291 -8.9029179 -0.40315753 4.8724589
1.8129501 -8.854682 -0.40194297 4.9942427
2.2592163 -8.8509731 -0.40292126 4.98842
2.6346171 -8.8468304 -0.40489402 4.869957
2.9833226 -8.9426823 -0.40131736 4.7457595
3.3960259 -9.0265379 -0.40154448 4.9846091
3.7237711 -9.0031748 -0.40399474 4.9889164
4.0930848 -9.1387653 -0.40272745 4.992198
-0.81962276 -8.5538788 -0.41632092 4.1021719
-0.56673914 -8.4603577 -0.40993354 5.1002798
-0.30547154 -8.4585838 -0.40851349 5.0975599
0.1711894 -8.489172 -0.40328354 3.1010644
0.74558914 -8.4461899 -0.40995789 3.9951563
1.0431398 -8.4909935 -0.40597802 4.994751
1.4226534 -8.439764 -0.40516287 4.9967275
1.7705268 -8.4498806 -0.40269899 4.9893255
2.2005477 -8.4617233 -0.40317363 4.9649458
2.6472313 -8.6573601 -0.4023838 4.8678064
3.0124378 -8.5559607 -0.40219319 4.9761739
3.3122518 -8.5149918 -0.40412742 4.0016499
3.6544397 -8.465251 -0.40131867 3.993206
4.0734305 -8.6060753 -0.40197846 4.0396099
-0.85657835 -8.2515345 -0.41196126 6.9811645
-0.54827785 -8.0762129 -0.41486049 5.0980177
-0.32826132 -8.0659628 -0.41314107 5.0975599
0.080111519 -8.0980816 -0.4113372 3.0974531
0.71703362 -8.0851307 -0.4060843 3.9892902
1.0181856 -8.1713715 -0.40409654 4.9359169
1.3957142 -8.2595901 -0.40453365 4.8718233
1.7549281 -8.1884308 -0.40205231 4.9658499
2.1726155 -8.1208801 -0.40097499 4.933392
2.5509205 -8.121891 -0.40135139 4.7444229
2.9286714 -8.0267639 -0.40535295 3.9923651
3.2559655 -8.154707 -0.40700316 3.9926577
3.7551994 -8.1162424 -0.40390044 4.0769596
4.1539478 -8.1718597 -0.40131399 3.9982357
4.608882 -8.0165291 -0.4005321 5.5875998
-0.81700236 -7.85783 -0.43408471 4.9055839
-0.56987596 -7.6641293 -0.43825769 5.0993237
-0.34964103 -7.6711669 -0.43663606 5.0975447
0.042952351 -7.8354149 -0.4070096 3.0700021
0.67289174 -7.6876249 -0.40228173 3.9949465
0.99011785 -7.693861 -0.40735573 4.9947519
1.3546033 -7.6859684 -0.40556476 4.9909177
1.721058 -7.6877775 -0.4008745 4.8719559
2.1235647 -7.6609569 -0.40422171 3.9906301
2.4778409 -7.669384 -0.40551701 3.9886858
2.9326134 -7.7102375 -0.40174866 3.9912748
3.2793367 -7.7510915 -0.40432584 3.9920895
3.6879325 -7.8268604 -0.40649953 3.993639
4.0429335 -7.616612 -0.40015554 6.1048403
4.4280653 -7.9314756 -0.40150541 4.013639
-2.9755371 -7.3660941 -0.43304068 5.0866294
-2.5133653 -7.2570467 -0.46409631 5.1025534
-2.0226765 -7.3280497 -0.45134789 5.1029043
-1.6681769 -7.343482 -0.44087821 5.1021643
-1.342648 -7.3568673 -0.43602443 5.1014805
-1.0190156 -7.2826929 -0.44746536 5.0982924
-0.66813034 -7.2644076 -0.4447273 5.1002994
-0.004673956 -7.438201 -0.43171784 4.9986906
0.33056688 -7.3934541 -0.42765445 4.9979901
0.62393582 -7.3367748 -0.42288673 4.9973702
1.1551142 -7.2159772 -0.41707319 4.9962416
1.3061346 -7.2463326 -0.42665055 4.9975681
1.6988488 -7.2876582 -0.41519502 4.9892988
2.1076081 -7.289268 -0.4029302 4.7438579
2.5112166 -7.2921705 -0.40260389 3.9900994
2.8562379 -7.4138269 -0.40448618 3.9857936
3.2453063 -7.3580394 -0.40237552 3.1843755
3.9432058 -7.2246399 -0.40659308 6.1053534
4.0659146 -7.2095985 -0.40413696 6.1053534
4.6709938 -7.5148268 -0.40243155 6.1048403
4.9339437 -7.4867406 -0.40083605 6.1048403
-3.1134868 -7.0098176 -0.43869007 5.1052389
-2.491116 -7.1261435 -0.46650961 5.1037664
-2.0488946 -7.1100712 -0.454519 5.1027346
-1.7061162 -6.9240952 -0.44793805 5.1019211
-1.3817815 -6.9879713 -0.44216013 5.101429
-1.0525634 -6.8844738 -0.44975704 5.0969877
-0.60158426 -6.8606963 -0.4453949 5.1016693
-0.047620736 -7.1426597 -0.43373081 4.9990578
0.28772181 -7.1469312 -0.43295401 4.9826984
0.63607204 -7.138545 -0.43330914 4.9966578
1.0990689 -7.1177158 -0.42369643 4.9962358
1.5496645 -7.1022048 -0.41222021 4.9953909
1.9628799 -6.9566383 -0.40682346 4.9944839
2.1420467 -6.8827248 -0.40417296 4.9940829
2.4511273 -7.072875 -0.40325588 3.8680968
2.8617814 -7.0300989 -0.40475339 3.0387106
3.3962693 -7.1247158 -0.40586594 3.7687454
3.9291928 -6.9566712 -0.40954548 6.1056986
4.0810881 -6.9369187 -0.40619332 6.1056948
4.713212 -7.1508107 -0.40367419 6.1052961
4.9868822 -7.1594715 -0.40156627 6.1052394
-2.8450298 -6.7099981 -0.45798063 5.1031752
-2.4707479 -6.7390513 -0.45689437 5.1037626
-2.0589433 -6.7117281 -0.45235074 5.1028352
-1.7805053 -6.7517676 -0.45010853 5.1022902
-1.3880925 -6.7298574 -0.44285744 5.101459
-1.0611032 -6.4695487 -0.44363827 5.1019392
-0.60617816 -6.4489455 -0.43829045 5.1016555
-0.04195603 -6.7404928 -0.43090332 4.9911566
0.34097469 -6.7405887 -0.42762119 4.9785862
0.68329751 -6.7359915 -0.42396006 4.9964123
1.1261265 -6.7176666 -0.41405699 4.9962406
1.5110581 -6.6983337 -0.4118073 4.9953804
1.8869014 -6.7090411 -0.4129819 4.9945545
2.068553 -6.7323794 -0.41147128 4.9930844
2.4705105 -6.7191429 -0.40256059 2.8870692
2.98458 -6.7711339 -0.42280614 4.0396919
3.3203578 -6.726615 -0.43566978 6.1061502
-2.8897381 -6.3258543 -0.45425162 5.1045871
-2.5069633 -6.3172588 -0.44851997 5.1037636
-2.0737307 -6.3487945 -0.44129992 5.10285
-1.7176882 -6.3508635 -0.43572763 5.1020837
-1.4119046 -6.321332 -0.42848015 5.1013675
-1.0270265 -6.0510941 -0.43517363 5.1020288
-0.60295469 -6.059691 -0.43136275 5.1013222
-0.069490105 -6.3366575 -0.41792786 4.9912176
0.31045985 -6.3293896 -0.41531134 4.9856849
0.67687452 -6.3551664 -0.41527924 4.9951735
1.0926373 -6.3046417 -0.41171306 4.9962611
1.5161989 -6.3363709 -0.40943259 4.9953823
1.8948743 -6.3594379 -0.40859771 4.9945641
2.1527052 -6.3681173 -0.40428162 2.2954998
-2.925364 -5.879158 -0.43438503 5.1047263
-2.4950328 -5.9397497 -0.43953747 5.1037612
-2.0628116 -5.9252992 -0.43611515 5.1028605
-1.7064502 -5.9248629 -0.43298435 5.102097
-1.4017781 -5.9451756 -0.43012226 5.100843
-1.0907185 -5.9143362 -0.4353556 5.1013479
-0.61689943 -5.8399634 -0.42994618 5.0805907
-0.05924087 -5.9439468 -0.41424453 4.9689827
0.30905199 -5.9391322 -0.41010076 4.9966221
0.65308237 -5.9270658 -0.40518752 4.997189
1.0685081 -5.8012948 -0.40325552 4.9963636
1.3981494 -5.6986747 -0.40826657 4.9967313
1.8651195 -5.8069067 -0.40422761 4.8399987
2.0035379 -5.6686311 -0.40624562 5.045558
-2.8784747 -5.5228376 -0.44285727 4.5920391
-2.5500755 -5.2824392 -0.43282679 4.1075411
-2.1953666 -5.2620182 -0.44134879 4.1027069
-1.6661044 -5.2144675 -0.43329072 4.1028242
-1.3043664 -5.2569728 -0.42966837 4.1017656
-0.9272325 -5.2712984 -0.43683568 4.0988951
-0.56707197 -5.2692523 -0.43271109 4.097846
-0.20028901 -5.2315612 -0.41609168 3.9985478
0.317765 -5.2806482 -0.40222418 2.9904408
0.55395365 -5.4138489 -0.41525069 4.4978809
1.0916792 -5.5170488 -0.40447593 4.9860468
1.3814558 -5.4586301 -0.40632489 4.9944873
1.8511792 -5.3259068 -0.401719 4.9039583
2.0052567 -5.464622 -0.4237211 5.0692482
-13.032018 -4.8351388 -0.55381775 6.1175399
-12.766682 -4.9314728 -0.54838675 6.1175399
-2.9149871 -4.8345637 -0.44144505 4.1066484
-2.5355594 -5.0051823 -0.44074941 4.1054277
-2.2263436 -5.1041751 -0.43845031 4.1044841
-1.7452056 -5.1775675 -0.43768466 4.1028833
-1.3663231 -5.1534853 -0.43522114 4.1017628
-0.97059178 -4.8829041 -0.4383046 4.0989404
-0.59452611 -4.8792267 -0.43415096 4.0978575
-0.20814411 -5.1339455 -0.42215511 3.9982738
0.28110641 -5.1576061 -0.41145688 3.9971306
0.71013141 -5.0475459 -0.40576917 3.9958429
0.99862266 -4.9531164 -0.40168223 3.9949601
1.3078822 -4.883481 -0.40621364 3.9862666
1.6891334 -4.8663502 -0.40550905 3.9061363
2.2600222 -4.9469771 -0.40281069 2.4932961
2.5761311 -4.8521681 -0.4010191 1.4988105
2.8476849 -4.9059281 -0.41339737 1.6683812
-13.270915 -4.4042459 -0.5541029 6.1181092
-12.930875 -4.6334519 -0.5482983 6.1179385
-12.6119 -4.541935 -0.54380023 6.1179733
-12.385929 -4.6567054 -0.54285771 6.1184511
-2.9326925 -4.6147652 -0.44277233 4.0968637
-2.5669751 -4.7465334 -0.44386482 4.1053438
-2.2396529 -4.7440324 -0.43799058 4.1043677
-1.727139 -4.7322149 -0.43119791 4.1028652
-1.354781 -4.7225871 -0.42933708 4.1017537
-1.0182846 -4.4695826 -0.42721486 4.0989075
-0.65364051 -4.4709291 -0.42367667 4.0978589
-0.19472432 -4.7503967 -0.41504258 3.9974909
0.21089125 -4.715858 -0.41206741 3.9971638
0.65548658 -4.7497907 -0.40999031 3.9958208
1.0531243 -4.7629633 -0.40780413 3.9946034
1.4897132 -4.7564602 -0.40028179 3.9933944
1.7693589 -4.5101814 -0.4020769 3.9929049
2.1843772 -4.5666332 -0.400401 3.4772844
2.522619 -4.6383209 -0.40062094 2.2337623
2.8431044 -4.7467856 -0.43565407 2.5382228
-13.440747 -4.0485358 -0.55357158 6.1185646
-12.965294 -4.0976 -0.54565883 6.1185079
-12.498356 -4.0681038 -0.54520994 6.1183939
-12.190627 -4.2332211 -0.54574001 6.1193342
-2.8649395 -4.289258 -0.4447847 4.1058583
-2.5580988 -4.3508754 -0.44146007 4.1053252
-2.1848607 -4.3392043 -0.4363375 4.1041794
-1.7303302 -4.3077807 -0.42921317 4.1028214
-1.3267548 -4.0166802 -0.42040569 3.1022334
-1.0969057 -4.0406899 -0.41848546 3.101367
-0.40041018 -4.0140262 -0.40872696 2.9987473
-0.39823663 -4.0293083 -0.41250944 2.9987469
0.20173186 -4.301774 -0.41001564 3.997165
0.64926732 -4.343998 -0.40727296 3.9958606
1.0376282 -4.3228378 -0.4030399 3.9946749
1.3608418 -4.1143174 -0.40172088 3.9937866
1.749948 -4.0861006 -0.40131664 3.9916649
2.1211739 -4.1114197 -0.40104058 3.7340741
2.4749055 -4.3296223 -0.41062146 1.2352821
-13.675709 -3.6136274 -0.5552122 6.1191344
-13.478448 -3.8048429 -0.55221641 6.1189632
-12.993229 -3.7637405 -0.5443784 6.1190491
-12.552513 -3.7926729 -0.54297435 6.1187658
-12.3333 -3.827034 -0.54792118 6.1197038
-2.8860903 -3.901041 -0.43773311 4.1053104
-2.5814695 -3.6765587 -0.4319692 3.1071286
-2.177253 -3.8321297 -0.42803779 3.1055031
-1.735929 -3.9527774 -0.42481813 3.1037872
-1.3877153 -3.910511 -0.42553189 3.1061287
-1.1605172 -3.9415896 -0.42521709 3.1033201
-0.46371111 -3.9131365 -0.41587234 3.0030403
-0.13237195 -3.985677 -0.40756634 2.9977384
0.27041739 -3.8924065 -0.40187424 2.9961872
0.62251997 -3.7860103 -0.40069628 2.9948111
0.84064752 -3.6878514 -0.40264076 3.9932275
1.294769 -3.8049316 -0.40045547 3.8535738
1.7075003 -3.8863921 -0.40144885 2.4956138
2.1022501 -3.9180887 -0.40063781 2.2737913
2.4776435 -3.7942743 -0.41532099 4.1141229
-13.829764 -3.2497272 -0.5549888 6.1195903
-13.390152 -3.3392096 -0.54691297 6.1194763
-12.848848 -3.2957835 -0.54078239 6.1193733
-12.72723 -3.4751022 -0.54157305 6.1191216
-2.8945286 -3.4966674 -0.42292207 4.106185
-2.6406469 -3.5327697 -0.43828407 3.1090503
-2.320858 -3.5654564 -0.43385985 3.105876
-1.7989103 -3.5235674 -0.42562234 3.107651
-1.3767383 -3.2186444 -0.41518986 2.1028726
-1.1010671 -3.2527535 -0.41271746 2.1015944
-0.43390107 -3.2334671 -0.4046827 1.9985194
-0.14297739 -3.2009192 -0.40509138 1.9970891
0.20387033 -3.5480976 -0.4042553 3.0001183
0.67280906 -3.5414338 -0.40454257 2.9978147
1.0125659 -3.4891541 -0.40115887 3.2359333
1.267386 -3.3531575 -0.40169388 3.4519916
1.811271 -3.5118985 -0.40149316 0.54099256
2.0832543 -3.2880678 -0.40250194 0.39766517
-13.642225 -3.1942639 -0.54926586 6.1198177
-13.373026 -2.91854 -0.54388881 6.1201591
-12.93346 -3.0445404 -0.53955233 6.11976
-12.640658 -3.1682024 -0.54775637 6.120615
-2.8995924 -2.93694 -0.41277128 4.3940725
-2.5400817 -2.8136992 -0.4243474 2.1085768
-2.1242354 -3.0159416 -0.42167521 2.1064446
-1.7980554 -3.1243212 -0.41874248 2.1048617
-1.4503028 -3.1156282 -0.42149755 2.1068158
-1.165663 -3.1469798 -0.41841668 2.1035476
-0.49830246 -3.1278408 -0.41068697 2.0024281
-0.13959092 -3.184845 -0.40136987 1.9971455
0.23772341 -3.088315 -0.40068251 1.9953303
0.46868914 -3.0099993 -0.40100312 1.9941584
1.1257299 -3.0949631 -0.4009524 3.4775171
1.3155193 -3.0967364 -0.40275198 3.0250876
1.8308457 -2.9051976 -0.40081424 0.4077031
2.0739291 -3.0095754 -0.40115353 0.21533927
2.4477601 -2.8437316 -0.44756371 3.1003497
-14.082735 -2.6058693 -0.55489147 6.1203871
-13.817348 -2.6879001 -0.54775292 6.1204443
-13.497498 -2.5224283 -0.54353499 6.1206722
-13.145661 -2.5138979 -0.53879309 6.1205654
-2.8289752 -2.5296655 -0.40432644 1.2869092
-2.6135926 -2.7523346 -0.42974949 2.1105676
-2.1513994 -2.4063892 -0.41792351 1.1078112
-1.7745396 -2.5590949 -0.414179 1.1055849
-1.38201 -2.664232 -0.41152948 1.1033602
-1.0824721 -2.7053804 -0.40837169 1.1017084
-0.47882444 -2.6918993 -0.40226308 0.99840558
-0.17206073 -2.6358347 -0.4007538 0.99669886
0.039601393 -2.5860791 -0.40073988 0.99544281
0.54768169 -2.6318622 -0.40219766 1.9927197
0.90706372 -2.4724319 -0.40243417 1.9958799
1.4467658 -2.7581971 -0.40638286 3.1117563
1.8116965 -2.6025209 -0.40270537 1.57437
2.1180205 -2.5463161 -0.4013595 0.4453263
2.4998844 -2.6496246 -0.40140647 3.0807102
-14.153312 -2.068234 -0.5511505 6.1211276
-13.717793 -2.1674144 -0.54465479 6.1209378
-13.277786 -2.1734979 -0.53764987 6.1210799
-13.170597 -2.3381085 -0.54058331 6.1206579
-7.927371 -2.0515585 -0.48444489 5.1176109
-2.8291636 -2.1817915 -0.40968272 0.11899931
-2.5729513 -2.1457312 -0.42017612 1.1105247
-2.3618033 -2.2889109 -0.41993946 1.109129
-1.7813362 -2.1291852 -0.41154087 0.10649201
-1.4532439 -2.2319517 -0.40770829 0.10430484
-1.0859292 -2.2943387 -0.40381229 0.10193622
-0.53976274 -2.29316 -0.4008193 -0.0015375849
-0.21174401 -2.2315657 -0.40050519 0.0031878969
0.17847046 -2.2993536 -0.40154716 1.4946685
0.65885746 -2.3150485 -0.40103608 2.4333732
0.94824052 -2.3070607 -0.40117756 1.755145
1.3456059 -2.1490173 -0.40091103 0.73544502
1.6846886 -2.2843618 -0.40112931 0.48579746
2.0803499 -2.134521 -0.40234804 0.78275579
2.5111637 -2.3012419 -0.40624213 2.9456475
2.8661385 -2.2312412 -0.41855443 3.0908813
-14.246323 -1.7369144 -0.55040753 6.1215262
-13.751818 -1.7393589 -0.54247445 6.1216969
-13.390305 -1.7706733 -0.53719717 6.1216717
-13.124625 -1.7986548 -0.54485571 6.1224375
-8.0697117 -1.7118948 -0.48390466 5.1182899
-7.8407688 -1.8233624 -0.48445609 5.1181045
-2.8744571 -1.8561145 -0.40297499 0.11805154
-2.5775557 -1.618758 -0.41632599 0.11253383
-2.2381983 -1.8839607 -0.41399983 0.10979054
-1.8252509 -1.9439626 -0.41834998 0.10643041
-1.4431456 -1.8854265 -0.41074899 0.15062636
-1.1611226 -1.9112408 -0.40846097 0.10587209
-0.6123867 -1.9402251 -0.40206608 0.0065201512
-0.11087373 -1.9340044 -0.40067375 0.52317059
0.17445022 -1.7795424 -0.40198666 1.428266
0.49426514 -1.8957186 -0.40354759 0.89147842
0.98429102 -1.8256093 -0.40213221 0.90279365
1.3698878 -1.8657779 -0.40295753 2.0801516
1.9285189 -1.8551941 -0.40202349 0.50964069
2.1049523 -1.7211442 -0.4012109 1.0769966
2.519073 -1.9652429 -0.44326222 2.5667248
-14.469481 -1.3790646 -0.55400729 6.1218677
-14.194664 -1.4301126 -0.54525554 6.1219816
-13.786425 -1.3881378 -0.54172051 6.1221952
-13.487106 -1.3854434 -0.53631032 6.122201
-8.1234455 -1.2506282 -0.47849348 5.1196623
-7.954814 -1.5251378 -0.48158807 5.118844
-2.8017421 -1.4119309 -0.42042661 0.11444534
-2.7766898 -1.4130278 -0.41735101 0.11435074
-2.2299588 -1.5207953 -0.41700613 0.11693957
-1.8335093 -1.5607672 -0.41526693 0.10666182
-1.4444747 -1.5183929 -0.41079152 0.11677989
-1.1643534 -1.4997954 -0.40693831 0.10975838
-0.61329818 -1.5486041 -0.40194708 0.11972845
-0.25201866 -1.4843154 -0.40128911 0.99518192
0.21671087 -1.4235845 -0.40108746 1.0865078
0.54299331 -1.4997669 -0.40088987 0.52574325
1.0118582 -1.4315622 -0.40450442 1.8218427
1.4744468 -1.4113142 -0.40672442 3.0859225
1.780001 -1.5005631 -0.4054445 3.0872474
2.0900135 -1.5374177 -0.4049657 4.113203
2.4152908 -1.402565 -0.4061456 1.7435168
-14.546663 -1.0409675 -0.55322725 6.1222668
-14.148542 -0.93455303 -0.54129565 6.1226654
-13.93066 -0.97354263 -0.54066324 6.1226082
-13.564287 -1.0091506 -0.53416318 6.1227846
-8.4934177 -1.0510962 -0.48812798 5.1197042
-8.2705307 -0.91668624 -0.47887495 5.120574
-5.8820887 -0.86874282 -0.45682266 4.117702
-2.8589368 -0.92548686 -0.41495708 5.0555487
-2.440433 -1.1243765 -0.41847393 0.11802968
-2.2410283 -1.1480994 -0.4170171 0.11113515
-1.8050628 -1.1504247 -0.41000003 0.10617891
-1.4512664 -1.1536968 -0.4050867 0.10804798
-1.1780879 -1.1013294 -0.40196756 0.10584086
-0.58655751 -1.0686002 -0.40185571 1.0110129
-0.16037603 -0.9184857 -0.4007996 0.99328899
0.22921321 -0.96202892 -0.40340954 2.8112857
0.608643 -0.9844206 -0.40651819 2.7400301
1.0049535 -1.1071457 -0.40810522 3.0843377
1.2936769 -1.0932863 -0.40312612 1.5736713
1.8107241 -1.1281836 -0.40427268 2.5880079
2.1364365 -1.0225788 -0.40325937 2.5891922
2.5128212 -0.94367141 -0.40229386 3.2326407
2.8069487 -0.81474578 -0.43541956 2.1214004
-14.139412 -0.55035293 -0.54077709 6.1229782
-13.657301 -0.51964217 -0.5333364 6.1235704
-13.574551 -0.7494278 -0.5371592 6.1227579
-8.4539728 -0.53193432 -0.47943434 5.1214724
-8.3734722 -0.61401176 -0.47636491 5.1214085
-6.0761156 -0.44973305 -0.45270324 4.1196251
-5.9611058 -0.61635005 -0.45648873 4.1187572
-2.8407025 -0.64616251 -0.40501592 5.0561848
-2.4421678 -0.75657803 -0.41340911 0.11261217
-2.2509227 -0.70422792 -0.41294894 0.11102344
-1.8552066 -0.75974524 -0.41002256 0.10628286
-1.374769 -0.74511158 -0.4061442 0.10308936
-1.1237292 -0.64194345 -0.40759474 0.10252778
-0.64323777 -0.65501273 -0.4022564 0.062653579
-0.20792551 -0.55346042 -0.40125966 0.38628986
0.16245458 -0.51666993 -0.40174595 2.0566411
0.6472038 -0.62359154 -0.40796131 2.4627824
0.96300453 -0.73948836 -0.41862607 4.1042476
1.3610626 -0.58226436 -0.40677688 1.4114784
1.8558445 -0.57683504 -0.40226924 1.6958272
2.226985 -0.7155292 -0.40437686 2.8251729
2.4954047 -0.56374431 -0.40364075 3.0882497
2.9433472 -0.46570736 -0.41204727 1.857244
-14.125199 -0.2185403 -0.54115921 6.1232347
-13.727117 -0.10799687 -0.53228748 6.1242781
-13.525558 -0.33741418 -0.5382483 6.1182775
-8.5236053 -0.08611872 -0.47531933 5.1230345
-8.3872814 -0.3336871 -0.48170471 5.1215062
-6.2220335 -0.12292816 -0.45064431 4.121191
-5.9856968 -0.35772675 -0.45730907 4.1208715
-4.8780174 -0.06060379 -0.44034243 3.1190429
-4.7818356 -0.17571077 -0.44341061 3.1180668
-2.8197589 -0.1110219 -0.40714324 5.0516043
-2.4727225 -0.32994911 -0.41516688 0.11071369
-2.2483873 -0.34680134 -0.41616783 0.10886747
-1.7179132 -0.101467 -0.40155107 0.094729736
-1.4589591 -0.15967888 -0.40075183 0.13835426
-0.94578564 -0.11222651 -0.40208289 1.174753
-0.54003906 -0.061423976 -0.40118197 1.1769657
-0.19766951 -0.096627913 -0.40225488 2.3039756
0.10010577 -0.060885902 -0.40133536 3.5553801
0.51979941 -0.17088585 -0.40228251 3.5665605
0.98810238 -0.17946374 -0.40253687 1.4044162
1.4158453 -0.28845403 -0.40339756 3.7326803
1.8221495 -0.31091863 -0.40420073 2.5762441
2.2020192 -0.2208029 -0.403 3.0665479
2.7408466 -0.3373512 -0.4033936 3.0834317
2.9139502 -0.23635527 -0.4044387 2.9916615
-13.743387 0.22130719 -0.52995813 6.1247416
-8.8528624 0.26980573 -0.48466307 5.122551
-8.5969896 0.31240541 -0.47439843 5.1242552
-6.4391251 0.25439057 -0.46102902 4.1210136
-6.3683357 0.32639089 -0.45069635 4.1234059
-5.0620489 0.26427436 -0.43615723 3.1215768
-4.237196 0.35800573 -0.42810464 2.1204395
-3.9725492 0.17125486 -0.43129763 2.1189065
-2.821564 0.17287897 -0.42777088 5.0494127
-2.7104924 0.11462492 -0.41711286 0.094701424
-2.3029835 0.3262558 -0.40187183 0.039659373
-1.7709453 0.31573445 -0.40142021 0.11295174
-1.4137702 0.13287087 -0.40139994 0.16378747
-0.94585145 0.23168966 -0.40089622 0.3653321
-0.53099149 0.25747198 -0.40149927 1.0831908
-0.11132132 0.16947697 -0.40408871 2.1858511
0.31764406 0.14812171 -0.40981412 2.585541
0.6079669 0.030787729 -0.40602702 2.5871229
0.98999339 0.21338081 -0.40185174 2.4119995
1.321425 0.077049792 -0.40286762 3.089376
1.8175569 0.22792667 -0.40158084 3.5904632
2.1989503 0.19418339 -0.40244266 5.1142364
2.6278663 0.27666208 -0.4019587 4.5900106
2.9169145 0.15827033 -0.40369213 3.3347661
-13.757056 0.64296383 -0.52692729 6.0262828
-8.6166544 0.65810394 -0.4712123 5.0585217
-6.411726 0.57551193 -0.44898129 4.1245308
-6.3875217 0.64423329 -0.44818836 4.1241455
-5.2038646 0.67380035 -0.44091916 3.1230636
-5.1804323 0.6274237 -0.43666881 3.1243846
-4.4091892 0.67907 -0.42808411 2.1247153
-4.3873253 0.6994102 -0.42751271 2.1241777
-3.8484573 0.71331239 -0.41955268 1.1245811
-3.4538245 0.73469293 -0.41734165 0.12450761
-2.8244259 0.76656675 -0.41126782 1.0351207
-2.7811165 0.7034626 -0.41390952 0.035841227
-2.3401318 0.73356521 -0.40487325 0.039616741
-1.818011 0.7058295 -0.40077808 0.075124681
-1.5062869 0.60181439 -0.40124774 0.082498267
-1.0068741 0.69728053 -0.40132159 0.23641577
-0.59990138 0.67791897 -0.40203333 1.6773951
-0.2276853 0.6951555 -0.40185779 2.0569537
0.093844049 0.62841237 -0.4049176 1.5617323
0.59206975 0.48810899 -0.41519475 3.0847523
0.96350819 0.49038345 -0.42558405 5.1122999
1.4682941 0.46528533 -0.42050219 5.1129231
1.7390126 0.46128249 -0.41441873 4.4918242
2.083982 0.6134342 -0.40966052 4.9841356
2.6546454 0.4730137 -0.40558398 4.585146
2.8487015 0.53048027 -0.4037244 4.0816822
-13.75846 0.98479867 -0.52299196 6.0259027
-8.6175709 1.0517575 -0.46662122 5.0263734
-6.4058924 1.0343173 -0.44367373 4.0267658
-6.3919492 0.82410431 -0.44822896 4.1226592
-5.2181683 1.1258221 -0.44161141 3.1506956
-5.1498728 1.0690424 -0.42971879 3.027559
-4.4072809 0.85670435 -0.42516994 2.0269542
-4.3404422 1.0653211 -0.42322141 2.0285001
-3.6017871 1.160579 -0.4063969 1.0308087
-3.5965471 1.160105 -0.40582398 1.0308087
-3.1751723 1.1362352 -0.4017908 0.031550489
-2.6546817 1.1237226 -0.41470033 0.037912428
-2.2651119 1.1035866 -0.40808398 0.041360132
-1.8931539 1.1455629 -0.40328544 0.069417007
-1.4489741 1.0008589 -0.40167451 1.2656353
-1.0336162 0.97135258 -0.40055811 0.83029133
-0.57838762 0.99713194 -0.40099514 2.8028517
-0.12267578 1.0095924 -0.40441716 2.0618553
0.21761176 1.0976808 -0.40805063 3.3178198
0.49179131 1.1285665 -0.40292993 2.4771352
0.963341 0.98003554 -0.40475982 3.2327809
1.3680098 0.92534077 -0.41007471 4.5809436
2.7372663 0.85386646 -0.40464926 5.0959854
2.9009442 0.82547319 -0.40562356 5.1115565
-13.736928 1.3970752 -0.51829702 6.0264969
-13.593256 1.3918691 -0.52582645 6.0284166
-8.5806561 1.3672789 -0.46396273 5.0271993
-8.3788948 1.5718243 -0.46918386 5.0296841
-6.4033833 1.2362345 -0.44365424 4.0267129
-6.3269844 1.3902879 -0.44143885 4.0282731
-5.663662 1.5304132 -0.5089072 4.0542145
-5.2178593 1.4807138 -0.43584183 3.0517068
-4.8789821 1.5290022 -0.41739142 3.030524
-4.4047923 1.3307934 -0.42361203 2.0262897
-4.1008291 1.3809636 -0.41069376 2.0309992
-3.6785095 1.2393718 -0.41258091 1.0306641
-3.4584727 1.4900134 -0.40237695 1.032768
-3.0242622 1.4682975 -0.4005909 0.033917956
-2.5429473 1.4919837 -0.4125424 0.040080681
-2.3078358 1.5502377 -0.41167766 0.042779356
-1.9287796 1.5540748 -0.40946543 0.043728113
-1.5013289 1.5410833 -0.40273964 0.18302549
-0.97014284 1.3794448 -0.40761387 3.5451767
-0.68149203 1.3469834 -0.40224528 2.425849
-0.27101493 1.3334087 -0.401079 2.6779065
0.2068857 1.2668413 -0.42271039 5.1049957
0.60696745 1.2433453 -0.40839434 3.4981055
1.0068099 1.2557909 -0.41772467 5.1040201
1.369588 1.4230443 -0.40927488 4.082531
2.9961834 1.2592182 -0.40741181 5.1084881
-13.686283 1.8840315 -0.51460218 6.027194
-13.591561 1.854755 -0.51982129 6.0288172
-8.4793911 1.8381346 -0.46047473 5.0284228
-8.3407993 1.9311938 -0.46638522 5.0303669
-7.6999855 1.9453971 -0.53466964 5.0538726
-7.5396128 1.8601103 -0.54798007 5.0539341
-6.4107885 1.7243862 -0.44431385 4.0266876
-6.0547466 1.8963854 -0.42780101 4.030467
-5.939465 1.7913679 -0.44021383 4.0321426
-5.5525866 1.8722374 -0.50231099 4.0552588
-4.8572216 1.6127682 -0.4168663 3.0308657
-4.7291574 1.9126773 -0.41266388 3.0320718
-4.0953841 1.6343597 -0.41120005 2.0318961
-3.8643184 1.8931787 -0.4038043 2.0336018
-3.3293676 1.7586141 -0.40288216 1.0343966
-3.1408896 1.6236918 -0.40626359 0.12007221
-2.5607064 1.9264719 -0.4020825 0.051591359
-2.3618722 1.9431489 -0.40350252 0.043456648
-1.9635186 1.9066039 -0.40712252 0.044076797
-1.5640469 1.8820381 -0.40544105 0.06677106
-1.1922489 1.9521565 -0.40676138 0.068152644
-0.75645626 1.9230723 -0.40396845 0.36384684
-0.22290261 1.9438553 -0.40389973 0.67973167
0.054469205 1.8784471 -0.40531561 1.0588032
0.51053321 1.7366755 -0.40357935 0.72927338
0.95100558 1.7556435 -0.41300881 4.0721426
1.2492024 1.6645138 -0.41120854 4.0773878
1.6462998 1.9326327 -0.40410334 1.8329566
3.1911976 1.6965399 -0.40146428 5.1091118
-13.631183 2.2739573 -0.51037848 6.0277195
-13.577165 2.1526017 -0.51461172 6.0288925
-8.4297514 2.0568125 -0.45822406 5.0289283
-8.3172588 2.3364229 -0.45345545 5.0298009
-7.9505849 2.3517766 -0.51088554 5.0184731
-7.5306664 2.2108843 -0.53772712 5.0545454
-6.1413698 2.068037 -0.43396765 4.030437
-5.9237795 2.2620211 -0.4240571 4.0315962
-5.5054216 2.2821054 -0.43126535 4.0349369
-4.8099093 2.0568724 -0.41829872 3.0320699
-4.5665274 2.2522702 -0.409031 3.0334849
-4.0368633 2.0927525 -0.41164267 2.0485954
-3.7109568 2.1526065 -0.40134183 2.0349882
-3.579586 2.0809808 -0.4089641 3.2940693
-3.0839796 2.0578101 -0.40847474 4.5088964
-2.6303625 2.2079008 -0.40646881 0.070914313
-2.2299676 2.0643563 -0.40469676 0.10530878
-1.7942581 2.2061124 -0.40184218 0.12023851
-1.5068457 2.0261002 -0.40637439 3.7684557
-1.1060438 2.0995822 -0.4025349 3.2834673
-0.76307964 2.0653946 -0.40482315 1.8002391
-0.23516905 2.0453687 -0.40258789 2.0291874
0.15832262 2.0421174 -0.4246718 5.0834999
0.61285281 2.0831046 -0.41485167 3.8238695
0.84267008 2.0414667 -0.40654922 3.3577952
1.3124294 2.1139536 -0.40439808 2.7173696
1.732645 2.1140304 -0.41166407 2.5144136
-13.636724 2.5084724 -0.51215541 6.0277262
-13.534899 2.7379515 -0.50788784 6.0284171
-12.507575 2.6948876 -0.58749855 6.0186787
-8.4651842 2.4949985 -0.45917058 5.0288134
-8.1327181 2.6322954 -0.44481859 5.0305805
-7.8881106 2.6796103 -0.45701882 5.0319128
-7.5129738 2.6823776 -0.5206486 5.0554571
-7.1705737 2.7579587 -0.5358519 5.0574102
-6.0087061 2.4477105 -0.43015444 4.0316057
-5.7299981 2.6722376 -0.41824368 4.0329156
-5.5580068 2.7310328 -0.43053234 4.0351024
-5.1836987 2.6921721 -0.42809775 4.0366998
-4.4679508 2.4234524 -0.40672269 3.0342255
-4.3762989 2.5630455 -0.40440026 3.034852
-3.8127809 2.5233846 -0.40486574 4.0888577
-3.5206823 2.4523938 -0.42004037 4.9950457
-13.62645 2.8984795 -0.51147395 6.0277338
-13.4543 3.0836751 -0.50542408 6.0288644
-12.579084 3.1121521 -0.57944191 6.0539241
-12.384234 3.0316372 -0.57131898 6.0549545
-8.0139427 2.9688725 -0.44126067 5.0313215
-7.9647284 3.0649338 -0.44669443 5.0322924
-7.5507689 3.1265807 -0.44995505 5.0286293
-7.1364679 3.0495889 -0.53111637 5.0565472
-5.660933 2.8123839 -0.4156974 4.033371
-5.5144777 3.059525 -0.41284806 4.0342064
-5.1258025 3.0194111 -0.42935103 4.0371437
-4.7059431 3.0202436 -0.41989613 4.0386457
-4.3629608 2.9790864 -0.41304165 4.0470772
-3.9185286 2.9960825 -0.49565151 6.076745
-13.368286 3.4120917 -0.50084519 6.0293255
-13.176027 3.5370231 -0.50390136 6.0316801
-12.773612 3.4924483 -0.56316018 6.0541558
-12.31846 3.5113337 -0.5704692 6.0551834
-8.1210346 3.2569814 -0.44650084 5.0313168
-7.8466187 3.3753142 -0.43661892 5.0322323
-7.5735164 3.3916843 -0.44969118 5.0345855
-7.0588694 3.5621789 -0.43165261 5.0348072
-5.3546576 3.3136628 -0.40960586 4.03508
-4.9039822 3.4945717 -0.42069563 4.9922266
-4.471323 3.4083104 -0.40445802 5.030468
-4.2315931 3.5707893 -0.42368853 5.552947
-3.9766173 3.373312 -0.44307923 6.0895214
-13.258865 3.7325222 -0.49590021 6.0297832
-13.122432 3.9075847 -0.50252497 6.0316825
-12.737192 3.9198182 -0.55262053 6.0546985
-12.343709 3.8359203 -0.57027006 6.0548763
-8.0227585 3.6945734 -0.44445151 5.0319476
-7.6042986 3.8465815 -0.42979687 5.0333309
-7.5748396 3.8796935 -0.43567389 5.0342131
-7.141336 3.9579439 -0.44132268 5.0362873
-6.6958046 3.9522252 -0.42712802 5.0375328
-6.236804 3.9270496 -0.41289598 5.0379791
-5.8216896 3.9629407 -0.40796119 5.0393724
-5.5496664 3.8892701 -0.4033123 5.0404954
-5.0360575 3.9233055 -0.4033348 5.0416112
-4.7136598 3.8996804 -0.40309304 5.0363398
-4.2968478 3.9354 -0.46808445 6.06318
-13.324581 4.0810833 -0.49816146 6.029727
-13.041424 4.1274881 -0.48735422 6.0304098
-12.779042 4.3408623 -0.53378165 6.0013075
-12.336214 4.2713914 -0.55852914 6.0552702
-7.7152586 4.0349894 -0.4368434 5.0332861
-7.3805084 4.2475877 -0.42516616 5.0342822
-7.1201248 4.1821723 -0.44213638 5.0364571
-6.7712345 4.3232613 -0.43616122 5.0375586
-6.3541803 4.3657179 -0.42506114 5.0386105
-5.8797884 4.3538365 -0.41043952 5.0398421
-5.457284 4.3515301 -0.40614802 5.0408878
-5.1716371 4.2512279 -0.40321112 5.0415473
-4.4044762 4.2682486 -0.48269784 6.0571752
-4.339674 4.2588701 -0.47511846 6.0581102
-13.250318 4.5813546 -0.49618921 6.0300684
-12.933516 4.4782662 -0.48404771 6.0308657
-12.78613 4.7214575 -0.48940715 6.0329151
-12.328382 4.6597748 -0.54358542 6.0557051
-11.908924 4.6122537 -0.55204082 6.0576873
-7.2054796 4.5272522 -0.42028761 5.0349665
-7.1951823 4.5195322 -0.41932255 5.034966
-6.5970001 4.4828076 -0.43452722 5.0373363
-6.2393456 4.4870796 -0.42536771 5.0358963
-5.9369898 4.5174904 -0.41723543 5.0395632
-5.5313272 4.4696732 -0.41265321 5.0345526
-4.5353112 4.7248411 -0.48249364 6.0577183
-4.3302917 4.4368601 -0.48055649 6.0696754
-12.805773 4.82201 -0.48007798 6.0313215
-12.672989 5.1396732 -0.4759576 6.0317488
-12.295805 5.0934 -0.51748556 5.9856353
-11.933398 5.0721216 -0.55225682 6.0563798
-4.525166 5.0927286 -0.46720293 6.0558815
-12.852545 5.4555073 -0.48403001 6.0316153
-12.553022 5.411953 -0.47240373 6.0321188
-12.316494 5.5206537 -0.4808923 6.0342374
-11.962685 5.4802737 -0.51879942 6.0209084
-11.569722 5.4085131 -0.54187334 6.0588341
-4.8366795 5.5662217 -0.47363371 6.0349088
-4.6480455 5.5189934 -0.47281784 6.0487432
-12.440107 5.6627073 -0.46937883 6.0324602
-12.28168 5.9934616 -0.46529192 6.0329151
-11.951777 5.9046202 -0.47276843 6.0350432
-4.9694033 5.9132652 -0.46447545 6.0476341
-4.7559142 5.855885 -0.46902812 6.0480638
-12.439163 6.1819267 -0.47268331 6.0328302
-12.156212 6.2382841 -0.46213377 6.0332575
-11.891245 6.3340359 -0.47125566 6.0353808
-11.500418 6.3347521 -0.45672232 6.0357141
-5.2466569 6.3346653 -0.43552437 6.0412121
-5.136467 6.2276912 -0.44781935 6.0473728
-12.020138 6.4773822 -0.45861375 6.0335989
-11.88254 6.7155142 -0.45526499 6.0339403
-11.577438 6.6836972 -0.46958941 6.0360732
-11.169056 6.7157645 -0.45221171 6.0367079
-10.691017 6.760098 -0.46492091 5.987813
-6.0512834 6.7774434 -0.42501044 5.994761
-5.6768441 6.6866369 -0.4241727 5.9952374
-5.3791437 6.6645689 -0.40768367 6.0473146
-11.743238 6.9527197 -0.45214653 6.0342827
-11.479085 6.9917502 -0.46577308 6.0363636
-11.07315 7.1017604 -0.45807636 6.037076
-10.763489 7.1070004 -0.44476777 6.0374956
-10.371415 7.1705666 -0.429479 6.0350847
-6.4303932 7.0996675 -0.40884024 5.9943051
-6.0716219 6.8624153 -0.42147231 5.9947538
-5.8431473 6.9348841 -0.41174746 6.0202131
-11.605081 7.2778521 -0.45009333 6.0347376
-11.465339 7.3736286 -0.44615456 6.0349097
-11.047709 7.3546925 -0.46278456 6.0371709
-10.713811 7.5129385 -0.45254034 6.0378232
-10.244925 7.5527873 -0.43727875 6.038434
-9.9389668 7.4971967 -0.42206597 6.0381823
-9.4624004 7.5378666 -0.42062646 6.0273132
-8.9775705 7.5604782 -0.42951375 5.990746
-8.4456215 7.5946002 -0.42269954 5.9915719
-7.6595931 7.5556784 -0.41229254 5.9927106
-7.3436365 7.520752 -0.4084461 5.9931383
-6.8274484 7.357492 -0.40778399 5.9938192
-6.5390005 7.2453518 -0.40650642 5.9941893
-6.2032671 7.2845888 -0.40381706 5.9946399
-5.9438109 7.2533665 -0.41737106 5.9949884
-11.327543 7.6463337 -0.44389138 6.0353074
-10.687157 7.668386 -0.45695964 6.0373783
-10.333248 7.8668499 -0.44964507 6.0385046
-9.9800663 7.789412 -0.43284631 6.0387764
-9.5660286 7.7792149 -0.41928452 6.0394859
-9.1569767 7.8335361 -0.41210806 6.0402546
-8.6654949 7.9314308 -0.40421844 6.0407534
-8.3486662 7.9213376 -0.40503684 6.0412016
-7.9465494 7.9251499 -0.40099376 6.0412612
-7.3624182 7.6612883 -0.410101 5.9931383
-7.0156093 7.6826229 -0.40851939 5.993618
-6.5297508 7.648037 -0.40613014 5.9942675
-9.7403641 8.1443539 -0.43421543 6.0386577
-9.3526649 8.2614107 -0.41997164 6.039969
-8.9838696 8.3228111 -0.41597044 6.04041
-8.7095966 8.3491497 -0.41079205 6.0410314
-8.1755753 8.32127 -0.4033525 6.0410967
-7.9548035 8.2212868 -0.40431359 6.0418415
-7.3742323 8.154726 -0.4046787 6.0180335
-9.031743 8.4046535 -0.41474885 6.0405469
-8.6614475 8.4395809 -0.41267717 6.0411162
10.37756 -10.8035 -0.0035680113 4.3314347
10.694002 -10.806809 -0.0062621888 3.2887101
11.101104 -10.804728 -0.29973501 6.0616999
11.302761 -10.805401 -0.32739049 6.1186161
11.80101 -10.829552 -0.15955463 5.5354042
12.334632 -10.862813 -0.010432139 5.1127453
12.686857 -10.853617 -0.020773109 3.8488293
12.95412 -10.886261 -0.0067383558 3.5844531
13.9649 -10.801165 -0.06002295 5.0527334
14.193115 -10.859995 -0.04150936 5.0528193
14.679701 -10.843822 -0.0122873 5.0526195
14.92956 -10.840012 -0.086189531 5.5535307
-0.82706934 -10.40987 -0.20152475 4.1535215
-0.4907015 -10.403074 -0.36576119 5.7740278
-0.15723673 -10.404803 -0.33274919 6.068193
0.30243462 -10.402502 -0.32157779 5.9982443
0.49348068 -10.415837 -0.25700414 5.0401354
1.5875766 -10.439624 -0.23323369 2.8924356
1.9710166 -10.418783 -0.29542223 2.8201201
2.1089747 -10.441355 -0.33748639 5.9961271
2.4875293 -10.458155 -0.33994788 5.995615
3.0032384 -10.480708 -0.3429797 5.9949346
3.4518719 -10.503738 -0.34771445 5.9943633
3.6604865 -10.51425 -0.35072973 5.9940634
4.0255518 -10.525959 -0.27695641 5.9948874
4.4295244 -10.528107 -0.24325389 5.9938068
4.8369017 -10.528378 -0.22320622 5.9927311
5.3054323 -10.553683 -0.21422388 5.9916105
5.7403479 -10.565292 -0.21692133 5.9909058
6.1725655 -10.571732 -0.21910053 5.9903998
6.469739 -10.589651 -0.22646505 5.9900236
6.9595737 -10.607736 -0.23175979 5.9893851
7.2988958 -10.625849 -0.21737388 5.9903955
7.8133559 -10.626701 -0.13687021 5.4977884
8.0926743 -10.630178 -0.2533052 5.9885578
9.1595316 -10.64094 -0.28584653 6.1108379
9.4737625 -10.68652 -0.37251449 6.1209822
9.7566414 -10.702452 -0.37127355 6.1205626
10.085992 -10.718647 -0.36881429 6.1201038
10.696531 -10.427849 -0.13087574 5.0357161
11.156485 -10.439775 -0.12806329 5.0294375
11.336133 -10.523164 -0.21092305 5.6207619
11.678236 -10.733629 -0.31656218 5.9868851
12.05204 -10.563921 -0.26633155 5.9856262
12.436061 -10.521529 -0.21564239 5.9842682
12.847181 -10.495049 -0.1646902 5.9919105
13.272857 -10.51406 -0.12962466 5.9930773
13.668701 -10.645953 -0.11065596 5.9636331
14.202028 -10.54642 -0.055751819 3.0289681
14.570194 -10.546234 -0.0085453633 0.15028374
15.08919 -10.538553 -0.0054962025 3.5528731
15.207424 -10.491278 -0.12584879 6.0486469
-0.84469211 -10.109737 -0.2442607 4.4840212
-0.49599725 -10.368796 -0.38942629 6.1018229
-0.24213485 -10.378643 -0.39787608 6.1014519
0.280552 -10.364272 -0.33358136 5.9987469
0.42270941 -10.36146 -0.35696453 5.9544907
1.5839391 -10.283192 -0.25612724 2.4892831
1.9229473 -10.174603 -0.38707125 2.1257732
2.2716479 -10.317737 -0.33852929 4.6640444
2.7360332 -10.307428 -0.31966633 5.0444083
2.9383831 -10.271454 -0.32175556 5.0447311
3.2624536 -10.059024 -0.37706649 4.0227594
3.8299146 -10.218744 -0.35281566 4.616044
4.1872606 -10.303037 -0.33245414 5.150178
4.5408826 -10.07793 -0.33554858 3.9819641
4.9442339 -10.143265 -0.39326286 4.8724961
5.2799425 -10.087889 -0.38554281 5.017828
5.6405725 -10.175055 -0.39161497 4.9909801
6.0421648 -10.093803 -0.36902857 4.9904423
6.570323 -10.233595 -0.32662654 4.9857569
6.931488 -10.066193 -0.30965096 4.9875994
7.2653742 -10.101418 -0.27776936 4.9914312
7.6371813 -10.186187 -0.26060122 4.9936638
8.2287292 -10.280264 -0.23609264 5.9889774
9.0826397 -10.164433 -0.16716585 6.1206026
9.5455818 -10.225389 -0.16061221 3.0568292
9.7763748 -10.202497 -0.14325237 2.9884312
10.34702 -10.131398 -0.10259534 4.066011
10.713705 -10.197401 -0.12586524 5.0437679
10.939265 -10.07821 -0.13282904 5.1048427
11.250458 -10.152267 -0.12259119 5.1147399
11.975832 -10.235822 -0.047600791 5.1134443
12.108694 -10.185919 -0.28064242 5.9847255
12.49151 -10.094332 -0.22243336 5.9845328
12.9075 -10.202157 -0.16690168 5.9899797
13.267147 -10.260618 -0.13127227 5.963078
13.655411 -10.201038 -0.11708868 5.9788074
14.167064 -10.253924 -0.076974526 4.6675844
14.69165 -10.279766 -0.0045271954 0.098671019
14.998863 -10.1634 -0.030295396 5.5503635
15.203548 -10.167192 -0.024273193 6.0497208
-0.85174716 -9.6833172 -0.33644313 3.5916371
-0.65450191 -9.8174553 -0.39443898 4.7120476
-0.13423505 -9.7661896 -0.39569992 4.3227911
0.060483888 -9.6647749 -0.379437 1.7273865
0.55866718 -9.824563 -0.29627398 5.9981775
1.5977938 -9.8891983 -0.25188297 1.701308
1.8697034 -9.6373043 -0.38712108 2.0872893
2.1371806 -9.7160845 -0.39779457 4.3279805
2.4780827 -9.7707443 -0.39206955 3.4965281
3.0018797 -9.6664829 -0.39773709 3.9943843
3.4439247 -9.7598248 -0.39741933 4.4934301
3.8848391 -9.6875362 -0.39623377 4.8675184
4.0763831 -9.6630058 -0.38261008 4.4922585
4.5098143 -9.6609478 -0.34972623 3.9902558
4.9861836 -9.8489647 -0.36285174 4.4832296
5.3028727 -9.7919369 -0.39848953 4.9876881
5.804688 -9.6924343 -0.3975935 4.9903612
6.0935965 -9.772604 -0.3813526 4.9893274
6.6294432 -9.7015209 -0.34101301 4.9851727
6.8336792 -9.6687212 -0.32779866 4.9881248
7.2658091 -9.6837139 -0.29374105 4.9862995
7.7190428 -9.6975603 -0.25896823 4.994453
8.2346973 -9.9009056 -0.21021472 5.9882736
8.4574938 -9.6597099 -0.18897742 5.4901237
8.9908199 -9.6857014 -0.18664373 5.2762299
9.3753605 -9.6885128 -0.060922723 5.0656328
9.9455395 -9.6093493 -0.10125311 5.0975676
10.274181 -9.7051725 -0.090918675 4.8444042
10.727343 -9.804657 -0.078118518 5.1153994
10.955937 -9.887064 -0.1296103 5.1026382
11.310008 -9.7455454 -0.10470162 5.1122851
11.789089 -9.9495211 -0.052943282 4.9563708
12.318334 -9.8565407 -0.2503711 5.614275
12.435947 -9.7597618 -0.24314016 5.9846025
12.948729 -9.7257252 -0.16365817 5.9784527
13.259052 -9.8711405 -0.13091424 5.9832859
13.652161 -9.7306023 -0.11982886 5.9924455
14.098574 -9.827507 -0.097470678 5.9810424
14.679812 -9.6740246 -0.01352129 3.6504085
14.888906 -9.6509686 -0.01960499 5.9737663
15.205094 -9.921957 -0.019037757 6.0494051
15.620745 -9.7130442 -0.15913615 6.0476084
16.32106 -9.6219215 -0.12275153 6.0472665
16.670315 -9.7389174 -0.093996391 6.0488467
17.090326 -9.7926826 -0.038441233 6.0489044
17.534382 -9.8665705 -0.020335404 6.0521498
17.892679 -9.849987 -0.0043606916 6.0509109
-0.84323847 -9.3479137 -0.28352433 3.8126419
-0.754022 -9.2671709 -0.36702925 2.0859141
-0.15122434 -9.2636995 -0.39831102 3.4947836
0.28424761 -9.2641659 -0.39711687 2.9894872
0.79962569 -9.3137913 -0.27028829 5.9976082
1.0228314 -9.3263845 -0.26987222 5.997354
1.3481448 -9.3473577 -0.27610314 5.9968395
1.8766559 -9.3131084 -0.39822707 4.9824843
2.309319 -9.2957649 -0.39762869 4.8076634
2.6881495 -9.2964745 -0.39825362 4.8076038
3.0970984 -9.388586 -0.39714175 4.4321671
3.3667083 -9.2639961 -0.39902017 4.9088631
3.6170835 -9.3015261 -0.39275253 3.9933152
4.2217689 -9.4395828 -0.39620462 4.9362593
4.4916401 -9.3281136 -0.37920302 4.490798
4.8653765 -9.2701063 -0.34191504 3.9887991
5.3553915 -9.4833231 -0.35830152 4.4923663
5.7371855 -9.3410969 -0.39777696 4.9850869
6.0984035 -9.2765951 -0.39678621 4.9866638
6.5361295 -9.2854042 -0.37157238 4.9886322
6.9464087 -9.2471075 -0.33369291 4.9873528
7.3497791 -9.2929306 -0.30161268 4.9852171
7.6692672 -9.4754677 -0.26974711 4.9904313
8.0669222 -9.4538288 -0.24770361 4.9924402
8.48032 -9.2865047 -0.23494397 4.9939919
8.8395472 -9.343586 -0.21617308 4.989007
9.2383623 -9.3077126 -0.15704012 4.14254
9.9418859 -9.3047953 -0.10466161 5.1013331
10.338229 -9.3238697 -0.095286891 5.1057453
10.785176 -9.3138895 -0.080355793 5.1192226
11.049177 -9.4948864 -0.1159024 5.1028337
11.274346 -9.4428844 -0.099880472 5.1079016
11.91563 -9.2928314 -0.0096010733 4.0978589
12.075157 -9.3203335 -0.0020910676 3.3512652
12.54404 -9.4572926 -0.23999232 5.9836669
12.827456 -9.4581432 -0.19441815 5.9812431
13.24132 -9.306819 -0.12907699 5.9918594
13.67479 -9.4025164 -0.11444782 5.9880948
14.098656 -9.4178705 -0.090884864 5.9917617
14.469442 -9.4985256 -0.078276075 5.9954581
14.846125 -9.3007822 -0.02198315 5.9890456
15.510433 -9.4506168 -0.17010915 6.0484161
15.939167 -9.5257645 -0.14407542 6.0472665
16.350821 -9.2666817 -0.12341561 6.0468259
16.7218 -9.5234127 -0.089046776 6.0486031
17.162058 -9.3693991 -0.037896272 6.0483718
17.553461 -9.4513817 -0.028128462 6.0516472
17.911346 -9.3728628 -0.0020380183 6.0505619
